ply
format ascii 1.0
comment PCL generated
element vertex 1064
property float x
property float y
property float z
property uchar red
property uchar green
property uchar blue
element face 0
element camera 0
property float view_px
property float view_py
property float view_pz
property float x_axisx
property float x_axisy
property float x_axisz
property float y_axisx
property float y_axisy
property float y_axisz
property float z_axisx
property float z_axisy
property float z_axisz
property float focal
property float scalex
property float scaley
property float centerx
property float centery
property int viewportx
property int viewporty
property float k1
property float k2
end_header
-0.11089892 -0.057629373 0.66100001 63 70 63
-0.10942502 -0.057803739 0.66299999 64 71 64
-0.10810255 -0.058065295 0.66600001 76 83 76
-0.10628492 -0.058065295 0.66600001 85 92 85
-0.10431043 -0.057978112 0.66500002 83 90 83
-0.10264967 -0.058065295 0.66600001 81 88 80
-0.10083205 -0.058065295 0.66600001 83 93 84
-0.099163093 -0.058152482 0.667 70 80 69
-0.097488672 -0.058239665 0.66799998 62 74 60
-0.096095227 -0.058501221 0.671 55 67 53
-0.094685413 -0.058762781 0.67400002 43 55 41
-0.0932592 -0.05902433 0.67699999 34 48 35
-0.091816634 -0.05928589 0.68000001 26 40 27
-0.090093099 -0.059373073 0.68099999 22 40 26
-0.088623241 -0.05963463 0.68400002 24 42 30
-0.08726383 -0.059983373 0.68800002 19 42 26
-0.086130805 -0.060506482 0.69400001 20 44 28
-0.084600903 -0.060768038 0.69700003 18 40 27
-0.082580023 -0.060680848 0.69599998 21 43 30
-0.080796443 -0.060768038 0.69700003 19 41 28
-0.07889422 -0.060768038 0.69700003 22 44 31
-0.07732337 -0.061029591 0.69999999 19 45 32
-0.075628422 -0.061203964 0.70200002 14 40 27
-0.074132554 -0.0615527 0.70599997 12 40 26
-0.072512589 -0.061814256 0.70899999 16 40 26
-0.070677154 -0.061901439 0.70999998 18 42 28
-0.06912671 -0.062250182 0.71399999 16 40 27
-0.067366265 -0.062424555 0.71600002 7 44 27
-0.065503538 -0.062511742 0.71700001 13 51 38
-0.17801532 -0.061568391 0.72899997 0 0 0
-0.1757843 -0.061483938 0.72799999 0 0 0
-0.17308128 -0.061230574 0.72500002 0 0 0
-0.16897862 -0.060470469 0.71600002 0 0 0
-0.16305885 -0.059034716 0.699 63 75 65
-0.15723188 -0.057598963 0.68199998 74 86 76
-0.15332025 -0.056838859 0.67299998 70 83 74
-0.15080826 -0.056585494 0.67000002 76 89 82
-0.14764556 -0.056078754 0.66399997 71 86 83
-0.14605305 -0.056163214 0.66500002 72 88 87
-0.14380434 -0.055994298 0.66299999 78 94 93
-0.14156656 -0.05582539 0.66100001 79 95 94
-0.13955115 -0.055740934 0.66000003 76 94 94
-0.13795862 -0.05582539 0.66100001 78 97 95
-0.1363606 -0.055909846 0.662 74 93 91
-0.13435066 -0.05582539 0.66100001 77 96 92
-0.13214561 -0.055656474 0.65899998 72 93 88
-0.1301493 -0.055572022 0.65799999 72 92 90
-0.12796338 -0.05540311 0.65600002 70 91 86
-0.12675005 -0.055656474 0.65899998 68 87 85
-0.12533076 -0.05582539 0.66100001 62 77 72
-0.12352677 -0.05582539 0.66100001 59 72 63
-0.12190694 -0.055909846 0.662 53 65 55
-0.12046307 -0.056078754 0.66399997 63 71 60
-0.11882961 -0.056163214 0.66500002 57 65 54
-0.11701471 -0.056163214 0.66500002 60 67 59
-0.11537305 -0.05624767 0.66600001 60 67 59
-0.11338492 -0.056163214 0.66500002 62 69 62
-0.11140224 -0.056078754 0.66399997 70 77 70
-0.10959007 -0.056078754 0.66399997 80 87 80
-0.10794023 -0.056163214 0.66500002 85 92 85
-0.10644451 -0.056332126 0.667 84 91 84
-0.104781 -0.056416579 0.66799998 75 85 76
-0.10311206 -0.056501038 0.66900003 68 78 69
-0.10128625 -0.056501038 0.66900003 63 75 63
-0.099609107 -0.056585494 0.67000002 45 57 43
-0.098072432 -0.056754403 0.67199999 34 48 33
-0.096668072 -0.057007775 0.67500001 28 42 27
-0.095247336 -0.057261139 0.67799997 27 44 28
-0.093810216 -0.057514507 0.68099999 24 42 28
-0.09208668 -0.057598963 0.68199998 23 44 29
-0.090489984 -0.057767879 0.68400002 21 39 25
-0.089400634 -0.058274612 0.69 18 41 25
-0.088151686 -0.058696892 0.69499999 18 42 28
-0.086751349 -0.059034716 0.699 13 40 25
-0.084965035 -0.059119172 0.69999999 19 46 31
-0.083291925 -0.059288085 0.70200002 18 45 30
-0.081491962 -0.059372541 0.70300001 18 42 28
-0.079686552 -0.059456997 0.704 17 41 27
-0.077875681 -0.059541449 0.70499998 15 41 28
-0.076167092 -0.059710365 0.70700002 14 42 28
-0.074552573 -0.059963729 0.70999998 14 40 27
-0.072717138 -0.060048189 0.71100003 12 43 28
-0.070975795 -0.060217097 0.713 13 35 23
-0.069513977 -0.060639378 0.71799999 19 57 44
-0.18099587 -0.059251923 0.72500002 0 0 0
-0.17877029 -0.059170194 0.72399998 0 0 0
-0.17630599 -0.059006743 0.722 0 0 0
-0.1726453 -0.058434654 0.71499997 69 79 70
-0.16759042 -0.057372209 0.70200002 68 79 71
-0.16119049 -0.0558194 0.68300003 76 86 78
-0.1562939 -0.054756951 0.67000002 75 87 77
-0.15262099 -0.054103136 0.662 74 87 77
-0.15104209 -0.054184861 0.66299999 76 89 80
-0.14968283 -0.054348316 0.66500002 82 97 90
-0.14786793 -0.054348316 0.66500002 74 89 86
-0.14561377 -0.054184861 0.66299999 75 91 90
-0.14358746 -0.054103136 0.662 80 96 95
-0.14092405 -0.053776227 0.65799999 74 92 92
-0.13912827 -0.053776227 0.65799999 78 96 96
-0.13691506 -0.053612776 0.65600002 78 96 96
-0.13533069 -0.053694502 0.65700001 76 95 93
-0.13353764 -0.053694502 0.65700001 70 89 85
-0.13194509 -0.053776227 0.65799999 68 89 84
-0.12995151 -0.053694502 0.65700001 66 88 85
-0.12815845 -0.053694502 0.65700001 71 92 87
-0.12675005 -0.053857952 0.65899998 74 90 87
-0.12495153 -0.053857952 0.65899998 74 91 85
-0.12296613 -0.053776227 0.65799999 63 76 67
-0.12117034 -0.053776227 0.65799999 52 64 54
-0.1197374 -0.053939682 0.66000003 53 63 52
-0.11811484 -0.054021411 0.66100001 59 67 56
-0.11631086 -0.054021411 0.66100001 63 71 60
-0.11468011 -0.054103136 0.662 67 74 66
-0.11287341 -0.054103136 0.662 76 83 75
-0.11089892 -0.054021411 0.66100001 80 87 79
-0.10892989 -0.053939682 0.66000003 81 91 82
-0.10761559 -0.054184861 0.66299999 77 87 78
-0.10628492 -0.054430041 0.66600001 72 82 73
-0.10493787 -0.054675225 0.66900003 55 69 56
-0.10311206 -0.054675225 0.66900003 37 51 38
-0.10158904 -0.054838676 0.671 34 51 35
-0.10005511 -0.055002127 0.67299998 27 45 29
-0.098510258 -0.055165585 0.67500001 24 42 26
-0.097097702 -0.055410761 0.67799997 26 44 28
-0.095528305 -0.055574216 0.68000001 26 44 30
-0.094085723 -0.0558194 0.68300003 20 41 26
-0.092491753 -0.05598285 0.685 26 47 32
-0.091151461 -0.05630976 0.68900001 19 43 29
-0.089789331 -0.056636665 0.69300002 20 44 30
-0.088151686 -0.05680012 0.69499999 17 44 29
-0.086751349 -0.057127025 0.699 15 42 27
-0.084965035 -0.05720875 0.69999999 17 44 29
-0.083529219 -0.05753566 0.704 12 38 25
-0.081607886 -0.05753566 0.704 12 38 25
-0.079686552 -0.05753566 0.704 11 37 24
-0.077765219 -0.05753566 0.704 13 39 28
-0.076059349 -0.05769911 0.70599997 15 38 28
-0.074552573 -0.058026019 0.70999998 9 43 29
-0.072921686 -0.058271199 0.713 13 46 35
-0.071473517 -0.058679834 0.71799999 19 63 48
-0.18373165 -0.057510272 0.72799999 0 0 0
-0.18124552 -0.057352278 0.72600001 0 0 0
-0.1775357 -0.056799293 0.71899998 0 0 0
-0.17264313 -0.055851325 0.70700002 68 83 76
-0.16588436 -0.054271366 0.68699998 66 79 72
-0.16090591 -0.053244401 0.67400002 74 85 79
-0.15765043 -0.052770413 0.66799998 73 84 76
-0.15489423 -0.052454423 0.66399997 80 91 83
-0.15239045 -0.052217431 0.66100001 80 93 83
-0.15035866 -0.052138437 0.66000003 79 92 82
-0.14923266 -0.052375425 0.66299999 82 97 90
-0.14764556 -0.052454423 0.66399997 83 98 93
-0.14561377 -0.052375425 0.66299999 86 102 101
-0.14337055 -0.052217431 0.66100001 85 101 100
-0.1413524 -0.052138437 0.66000003 75 93 93
-0.1393397 -0.052059434 0.65899998 78 96 96
-0.13733247 -0.05198044 0.65799999 75 93 93
-0.13553667 -0.05198044 0.65799999 66 84 84
-0.13353764 -0.051901441 0.65700001 70 89 87
-0.13214561 -0.052059434 0.65899998 62 83 78
-0.1303471 -0.052059434 0.65899998 63 84 79
-0.12874365 -0.052138437 0.66000003 61 82 77
-0.1269424 -0.052138437 0.66000003 67 86 82
-0.12514116 -0.052138437 0.66000003 67 82 77
-0.12315301 -0.052059434 0.65899998 61 74 65
-0.12153865 -0.052138437 0.66000003 68 80 70
-0.11991882 -0.052217431 0.66100001 57 67 58
-0.11829353 -0.05229643 0.662 66 76 67
-0.11631086 -0.052217431 0.66100001 73 83 72
-0.11468011 -0.05229643 0.662 71 81 70
-0.1130439 -0.052375425 0.66299999 81 88 80
-0.11140224 -0.052454423 0.66399997 73 80 72
-0.10942502 -0.052375425 0.66299999 62 74 64
-0.10810255 -0.05261242 0.66600001 54 66 54
-0.10692327 -0.05292841 0.67000002 40 52 40
-0.10556529 -0.053165402 0.67299998 30 46 33
-0.1038827 -0.053244401 0.67400002 25 43 27
-0.10234604 -0.053402394 0.676 24 42 26
-0.10079846 -0.053560387 0.67799997 22 43 26
-0.099239968 -0.053718388 0.68000001 26 47 30
-0.097956985 -0.054034378 0.68400002 27 48 31
-0.096371196 -0.054192372 0.68599999 25 48 32
-0.094912246 -0.054429367 0.68900001 22 45 29
-0.093166873 -0.054508362 0.69 25 49 33
-0.091680646 -0.054745357 0.69300002 22 46 32
-0.090048462 -0.054903351 0.69499999 19 43 29
-0.088405363 -0.055061348 0.69700003 19 43 29
-0.086875454 -0.05529834 0.69999999 16 44 30
-0.085207798 -0.055456337 0.70200002 14 42 30
-0.084122464 -0.056009315 0.70899999 10 40 28
-0.082535245 -0.05624631 0.71200001 16 39 29
-0.080818467 -0.056404304 0.71399999 12 39 30
-0.078869835 -0.056404304 0.71399999 7 43 31
-0.077028945 -0.056483302 0.71499997 10 58 44
-0.18196501 -0.054989558 0.72100002 0 0 0
-0.17725112 -0.054150604 0.70999998 0 0 0
-0.17062193 -0.052701503 0.69099998 78 90 88
-0.16458483 -0.051404942 0.67400002 75 87 87
-0.15984783 -0.05048972 0.662 78 89 91
-0.15756366 -0.050337184 0.66000003 78 89 91
-0.15670641 -0.050642252 0.66399997 82 93 95
-0.15442769 -0.05048972 0.662 87 99 97
-0.1521599 -0.050337184 0.66000003 91 103 101
-0.14944738 -0.050032109 0.65600002 89 104 99
-0.14788213 -0.050108377 0.65700001 92 107 102
-0.14608908 -0.050108377 0.65700001 91 106 103
-0.14407639 -0.050032109 0.65600002 89 104 101
-0.14206915 -0.049955837 0.65499997 79 95 94
-0.14049572 -0.050032109 0.65600002 74 92 92
-0.13891682 -0.050108377 0.65700001 73 91 91
-0.13670634 -0.049955837 0.65499997 71 89 89
-0.13430078 -0.049727034 0.65200001 67 85 85
-0.13252136 -0.049727034 0.65200001 64 83 81
-0.13134351 -0.049955837 0.65499997 61 80 76
-0.12975372 -0.050032109 0.65600002 56 75 71
-0.12815845 -0.050108377 0.65700001 58 77 73
-0.12636538 -0.050108377 0.65700001 65 82 76
-0.12495153 -0.050260913 0.65899998 65 80 73
-0.12296613 -0.050184645 0.65799999 62 73 65
-0.12135449 -0.050260913 0.65899998 69 79 70
-0.11937455 -0.050184645 0.65799999 64 74 65
-0.11793616 -0.050337184 0.66000003 75 85 74
-0.1161349 -0.050337184 0.66000003 65 77 65
-0.11468011 -0.05048972 0.662 66 78 64
-0.11270291 -0.050413452 0.66100001 60 72 58
-0.11140224 -0.050642252 0.66399997 42 56 41
-0.10975512 -0.050718527 0.66500002 43 60 44
-0.10842717 -0.050947327 0.66799998 28 46 30
-0.10692327 -0.051099867 0.67000002 26 43 27
-0.10556529 -0.05132867 0.67299998 23 41 25
-0.10419095 -0.051557478 0.676 21 42 25
-0.10295164 -0.051862553 0.68000001 22 43 26
-0.10124447 -0.051938817 0.68099999 27 48 33
-0.099531844 -0.052015085 0.68199998 27 48 31
-0.09781377 -0.052091356 0.68300003 23 44 27
-0.096511677 -0.052396428 0.68699998 25 48 32
-0.095187753 -0.052701503 0.69099998 28 51 35
-0.093436919 -0.052777771 0.69199997 31 55 39
-0.091812938 -0.05293031 0.69400001 26 50 36
-0.090178028 -0.053082846 0.69599998 15 42 27
-0.088659033 -0.05331165 0.699 16 43 28
-0.087371886 -0.053692993 0.704 12 43 28
-0.085693307 -0.053845529 0.70599997 14 42 28
-0.084359773 -0.054226875 0.71100003 13 39 28
-0.082767084 -0.054455679 0.71399999 14 44 34
-0.081158042 -0.054684483 0.71700001 22 63 49
-0.18538478 -0.052874751 0.71899998 0 0 0
-0.18214695 -0.052507054 0.71399999 0 0 0
-0.17691742 -0.051551044 0.70099998 79 91 87
-0.17001128 -0.050080258 0.68099999 76 91 88
-0.16494276 -0.049124248 0.66799998 86 98 98
-0.16141033 -0.048609473 0.66100001 91 102 104
-0.15960637 -0.048609473 0.66100001 90 101 103
-0.15756366 -0.048535936 0.66000003 85 96 98
-0.15670641 -0.048830088 0.66399997 95 106 108
-0.15442769 -0.048683014 0.662 105 119 119
-0.15262099 -0.048683014 0.662 106 120 120
-0.14967521 -0.048315316 0.65700001 104 119 116
-0.14765705 -0.048241779 0.65600002 100 112 110
-0.14519964 -0.04802116 0.653 96 108 106
-0.14341749 -0.04802116 0.653 94 106 104
-0.14185224 -0.048094697 0.65399998 81 95 95
-0.14049572 -0.048241779 0.65600002 73 89 88
-0.13912827 -0.048388854 0.65799999 67 86 84
-0.13733247 -0.048388854 0.65799999 61 80 78
-0.13533069 -0.048315316 0.65700001 67 86 82
-0.13333438 -0.048241779 0.65600002 57 77 75
-0.13174458 -0.048315316 0.65700001 56 77 72
-0.12995151 -0.048315316 0.65700001 56 75 71
-0.12815845 -0.048315316 0.65700001 60 77 71
-0.12617305 -0.048241779 0.65600002 67 84 76
-0.12476193 -0.048388854 0.65799999 63 76 66
-0.12315301 -0.048462395 0.65899998 70 82 72
-0.1217228 -0.048609473 0.66100001 67 77 68
-0.12010024 -0.048683014 0.662 68 78 69
-0.11882961 -0.048903633 0.66500002 63 75 63
-0.11701471 -0.048903633 0.66500002 61 73 59
-0.11554627 -0.049050707 0.667 57 70 53
-0.11372592 -0.049050707 0.667 37 51 34
-0.11190556 -0.049050707 0.667 29 46 28
-0.1104153 -0.049197789 0.66900003 29 47 31
-0.10891412 -0.049344867 0.671 20 41 26
-0.10740203 -0.049491942 0.67299998 18 39 24
-0.10619272 -0.049786102 0.67699999 19 40 25
-0.10465334 -0.049933184 0.67900002 26 46 34
-0.10386003 -0.050447956 0.68599999 26 48 35
-0.10169049 -0.050300878 0.68400002 23 47 33
-0.10011561 -0.050447956 0.68599999 23 45 32
-0.0982434 -0.050447956 0.68599999 24 46 33
-0.097214095 -0.05088919 0.69199997 31 53 40
-0.095738769 -0.051109809 0.69499999 28 52 38
-0.094112054 -0.051256891 0.69700003 25 49 35
-0.092342116 -0.051330429 0.69800001 16 44 29
-0.09069629 -0.051477507 0.69999999 12 43 28
-0.08942005 -0.0518452 0.70499998 10 44 30
-0.088240646 -0.052286439 0.71100003 6 44 31
-0.086664334 -0.052507054 0.71399999 15 61 48
-0.18851943 -0.05070005 0.71600002 0 0 0
-0.18474139 -0.050204378 0.70899999 0 0 0
-0.17945452 -0.049283843 0.69599998 73 85 81
-0.1734733 -0.048150886 0.68000001 79 89 88
-0.16858894 -0.047301162 0.66799998 87 99 97
-0.164519 -0.046663869 0.65899998 88 100 100
-0.16173279 -0.046380628 0.65499997 93 104 106
-0.1594568 -0.046239011 0.653 98 109 113
-0.15815757 -0.046380628 0.65499997 104 115 119
-0.15613125 -0.046309821 0.65399998 107 118 122
-0.15505439 -0.046522252 0.65700001 102 113 115
-0.15302806 -0.046451442 0.65600002 110 124 125
-0.1516988 -0.046593063 0.65799999 113 127 128
-0.14944738 -0.046451442 0.65600002 105 119 119
-0.14743195 -0.046380628 0.65499997 95 107 107
-0.14519964 -0.046239011 0.653 86 98 96
-0.14341749 -0.046239011 0.653 75 87 85
-0.14185224 -0.046309821 0.65399998 72 84 82
-0.14028153 -0.046380628 0.65499997 73 88 83
-0.13870539 -0.046451442 0.65600002 65 80 75
-0.13649762 -0.046309821 0.65399998 59 78 74
-0.13471274 -0.046309821 0.65399998 62 81 77
-0.13292786 -0.046309821 0.65399998 57 76 72
-0.13134351 -0.046380628 0.65499997 56 75 71
-0.12935813 -0.046309821 0.65399998 58 77 71
-0.12796338 -0.046451442 0.65600002 60 77 69
-0.12617305 -0.046451442 0.65600002 63 76 69
-0.12476193 -0.046593063 0.65799999 65 76 68
-0.12315301 -0.046663869 0.65899998 68 78 69
-0.1217228 -0.046805494 0.66100001 60 70 61
-0.12010024 -0.046876304 0.662 63 73 64
-0.11865091 -0.047017921 0.66399997 54 66 52
-0.11701471 -0.047088735 0.66500002 45 59 44
-0.11554627 -0.047230352 0.667 30 47 31
-0.11406694 -0.047371976 0.66900003 24 42 26
-0.11240888 -0.047442783 0.67000002 20 41 26
-0.11091043 -0.047584403 0.67199999 19 40 25
-0.10956339 -0.047796834 0.67500001 18 41 25
-0.10788079 -0.047867645 0.676 21 43 30
-0.10666329 -0.048150886 0.68000001 20 42 29
-0.10526986 -0.048363317 0.68300003 18 42 28
-0.10446563 -0.048858985 0.69 19 43 29
-0.10243384 -0.048788175 0.68900001 23 47 33
-0.10084531 -0.048929796 0.69099998 23 45 32
-0.098959461 -0.048929796 0.69099998 23 45 32
-0.097495064 -0.049142227 0.69400001 17 39 26
-0.095876515 -0.049283843 0.69599998 19 46 31
-0.093977019 -0.049283843 0.69599998 10 41 25
-0.092209823 -0.049354658 0.69700003 13 46 29
-0.090825856 -0.049637895 0.70099998 12 48 34
-0.089673728 -0.050062761 0.70700002 16 57 43
-0.088737071 -0.050629236 0.71499997 18 66 52
-0.19296509 -0.048882131 0.71799999 0 0 0
-0.18967545 -0.048541725 0.713 0 0 0
-0.18509659 -0.047860917 0.70300001 76 92 89
-0.17874837 -0.04670354 0.68599999 77 93 90
-0.17352428 -0.045818485 0.67299998 77 91 91
-0.16964668 -0.04527384 0.66500002 84 98 98
-0.16631752 -0.044865351 0.65899998 98 112 113
-0.1635204 -0.044593029 0.65499997 109 123 124
-0.16148588 -0.044524949 0.65399998 107 121 124
-0.15970099 -0.044524949 0.65399998 110 124 127
-0.15839905 -0.044661112 0.65600002 121 135 138
-0.15636998 -0.044593029 0.65499997 105 119 122
-0.15505439 -0.044729192 0.65700001 105 119 120
-0.15302806 -0.044661112 0.65600002 107 123 123
-0.15146826 -0.044729192 0.65700001 113 129 129
-0.14944738 -0.044661112 0.65600002 101 117 116
-0.14765705 -0.044661112 0.65600002 84 98 98
-0.145422 -0.044524949 0.65399998 85 97 95
-0.14407639 -0.044661112 0.65600002 79 89 88
-0.14228606 -0.044661112 0.65600002 69 81 79
-0.14070988 -0.044729192 0.65700001 72 84 80
-0.13870539 -0.044661112 0.65600002 72 87 80
-0.13691506 -0.044661112 0.65600002 67 82 75
-0.13512471 -0.044661112 0.65600002 68 85 77
-0.13333438 -0.044661112 0.65600002 60 80 71
-0.13154405 -0.044661112 0.65600002 54 71 63
-0.12995151 -0.044729192 0.65700001 62 79 69
-0.12835351 -0.044797271 0.65799999 62 78 67
-0.1269424 -0.044933438 0.66000003 66 78 68
-0.12514116 -0.044933438 0.66000003 58 68 59
-0.12352677 -0.045001518 0.66100001 57 67 58
-0.12209109 -0.045137677 0.66299999 47 59 47
-0.12082592 -0.04534192 0.66600001 40 52 40
-0.11954437 -0.045546167 0.66900003 29 45 32
-0.11789452 -0.045614246 0.67000002 28 44 31
-0.11606597 -0.045614246 0.67000002 22 40 26
-0.11491945 -0.045886569 0.67400002 16 36 24
-0.11341553 -0.046022732 0.676 19 41 28
-0.1122308 -0.046295054 0.68000001 15 39 26
-0.11086192 -0.046499297 0.68300003 17 41 27
-0.10931707 -0.04663546 0.685 16 40 26
-0.10776129 -0.046771619 0.68699998 16 43 28
-0.1060405 -0.046839703 0.68800002 14 41 26
-0.10507123 -0.047248188 0.69400001 16 43 28
-0.10317719 -0.047248188 0.69400001 17 45 30
-0.10142908 -0.047316268 0.69499999 13 41 26
-0.099961951 -0.047520511 0.69800001 13 41 26
-0.098337956 -0.047656674 0.69999999 13 45 30
-0.096565284 -0.047724754 0.70099998 10 44 28
-0.094787173 -0.047792837 0.70200002 7 45 32
-0.093268178 -0.047997076 0.70499998 20 63 53
-0.19275278 -0.046399772 0.70999998 0 0 0
-0.18812753 -0.045746252 0.69999999 77 96 92
-0.18196075 -0.044700626 0.68400002 77 93 90
-0.17667115 -0.043851051 0.671 79 95 92
-0.17301591 -0.04339359 0.66399997 80 96 93
-0.17017241 -0.043132186 0.66000003 81 97 97
-0.16735071 -0.042870775 0.65600002 96 112 112
-0.16480325 -0.04267472 0.653 110 125 128
-0.1630211 -0.04267472 0.653 112 127 130
-0.16148588 -0.042740069 0.65399998 100 115 118
-0.1594568 -0.04267472 0.653 123 138 141
-0.15767466 -0.04267472 0.653 110 124 127
-0.15589252 -0.04267472 0.653 108 122 123
-0.15458238 -0.042805422 0.65499997 110 124 125
-0.15232822 -0.04267472 0.653 102 118 118
-0.15077662 -0.042740069 0.65399998 89 105 104
-0.14876394 -0.04267472 0.653 79 95 92
-0.14698178 -0.04267472 0.653 77 92 87
-0.14497729 -0.042609368 0.65200001 81 93 89
-0.14341749 -0.04267472 0.653 73 85 81
-0.14163536 -0.04267472 0.653 63 76 69
-0.13963903 -0.042609368 0.65200001 67 80 73
-0.13785961 -0.042609368 0.65200001 63 76 67
-0.1358715 -0.042544018 0.65100002 59 72 63
-0.13430078 -0.042609368 0.65200001 56 72 62
-0.13231811 -0.042544018 0.65100002 59 75 65
-0.13094248 -0.04267472 0.653 52 68 58
-0.12975372 -0.042870775 0.65600002 56 72 61
-0.12854858 -0.043066829 0.65899998 62 75 65
-0.1269424 -0.043132186 0.66000003 57 69 59
-0.12533076 -0.043197535 0.66100001 53 65 55
-0.12371365 -0.043262888 0.662 39 51 41
-0.12227523 -0.04339359 0.66399997 27 41 28
-0.12082592 -0.043524295 0.66600001 22 40 26
-0.11972306 -0.043785702 0.67000002 18 38 26
-0.11824644 -0.043916404 0.67199999 18 39 24
-0.11641244 -0.043916404 0.67199999 18 38 26
-0.11508995 -0.044112459 0.67500001 16 40 26
-0.11408663 -0.044439219 0.68000001 14 41 26
-0.11305603 -0.044765979 0.685 14 41 26
-0.11151118 -0.044896681 0.68699998 14 41 26
-0.10963624 -0.044896681 0.68699998 15 42 27
-0.10838873 -0.045158088 0.69099998 15 42 27
-0.10665701 -0.045223437 0.69199997 14 41 26
-0.10537402 -0.045484845 0.69599998 13 40 25
-0.10332586 -0.045419496 0.69499999 14 40 27
-0.10142908 -0.045419496 0.69499999 12 43 28
-0.10024837 -0.045746252 0.69999999 11 45 29
-0.098618925 -0.045876957 0.70200002 10 48 35
-0.096978545 -0.046007659 0.704 21 65 50
-0.19607432 -0.044336818 0.708 0 0 0
-0.19414207 -0.044336818 0.708 0 0 0
-0.18786609 -0.043334853 0.69199997 78 97 93
-0.18221495 -0.042458136 0.67799997 77 96 90
-0.17743832 -0.041769288 0.667 84 100 97
-0.17456478 -0.041518796 0.66299999 83 99 96
-0.17171308 -0.041268308 0.65899998 91 107 106
-0.16965672 -0.041205686 0.65799999 98 116 118
-0.16735071 -0.041080441 0.65600002 111 129 131
-0.16505563 -0.040955193 0.65399998 132 150 152
-0.1630211 -0.040892571 0.653 127 145 149
-0.16173279 -0.041017815 0.65499997 117 135 139
-0.15994518 -0.041017815 0.65499997 132 147 152
-0.1586405 -0.041143063 0.65700001 122 136 139
-0.15684745 -0.041143063 0.65700001 107 121 124
-0.15505439 -0.041143063 0.65700001 99 115 115
-0.15279476 -0.041017815 0.65499997 95 111 111
-0.15146826 -0.041143063 0.65700001 76 92 92
-0.14921956 -0.041017815 0.65499997 78 94 93
-0.14720687 -0.040955193 0.65399998 74 89 86
-0.145422 -0.040955193 0.65399998 76 88 84
-0.14363712 -0.040955193 0.65399998 70 83 76
-0.14185224 -0.040955193 0.65399998 62 73 65
-0.13985319 -0.040892571 0.653 60 72 62
-0.13807106 -0.040892571 0.653 58 68 59
-0.13649762 -0.040955193 0.65399998 57 67 58
-0.13471274 -0.040955193 0.65399998 56 66 57
-0.13313112 -0.041017815 0.65499997 55 67 57
-0.13174458 -0.041143063 0.65700001 57 70 60
-0.1307427 -0.041393552 0.66100001 49 62 52
-0.12932883 -0.041518796 0.66299999 42 54 44
-0.12771174 -0.041581418 0.66399997 35 47 37
-0.1262788 -0.041706666 0.66600001 31 44 34
-0.12446117 -0.041706666 0.66600001 28 41 31
-0.12301183 -0.041831911 0.66799998 20 38 26
-0.12137018 -0.041894536 0.66900003 19 39 27
-0.12061652 -0.042270269 0.67500001 16 39 23
-0.1193022 -0.042458136 0.67799997 18 42 28
-0.11745183 -0.042458136 0.67799997 17 41 27
-0.11560146 -0.042458136 0.67799997 14 41 26
-0.11408663 -0.042583384 0.68000001 14 40 27
-0.11322107 -0.042959116 0.68599999 13 39 26
-0.11183582 -0.043146987 0.68900001 12 39 24
-0.11043417 -0.043334853 0.69199997 13 39 26
-0.10901617 -0.043522723 0.69499999 14 40 27
-0.10727352 -0.043585345 0.69599998 11 37 24
-0.10567683 -0.043710589 0.69800001 16 42 31
-0.10392054 -0.043773212 0.699 9 41 30
-0.10215878 -0.043835834 0.69999999 7 45 34
-0.20854777 -0.042584252 0.71100003 50 133 115
-0.20660734 -0.042584252 0.71100003 60 100 91
-0.19993883 -0.04240457 0.708 0 0 0
-0.19520988 -0.041805636 0.69800001 0 0 0
-0.18804303 -0.040667661 0.67900002 82 99 93
-0.18618993 -0.040667661 0.67900002 76 95 89
-0.18026456 -0.039769255 0.66399997 81 100 94
-0.17657113 -0.039350003 0.65700001 82 101 97
-0.17424601 -0.039230213 0.65499997 85 104 102
-0.17193182 -0.03911043 0.653 95 111 111
-0.16936798 -0.038930748 0.64999998 105 121 121
-0.1681097 -0.039050534 0.65200001 115 133 137
-0.16633028 -0.039050534 0.65200001 125 143 147
-0.16455087 -0.039050534 0.65200001 127 145 149
-0.16252181 -0.038990643 0.65100002 125 143 147
-0.16074513 -0.038990643 0.65100002 127 145 147
-0.15921262 -0.039050534 0.65200001 124 142 144
-0.15791611 -0.039170321 0.65399998 151 169 169
-0.15613125 -0.039170321 0.65399998 95 113 113
-0.15434638 -0.039170321 0.65399998 82 100 100
-0.15209495 -0.039050534 0.65200001 77 96 94
-0.15031554 -0.039050534 0.65200001 71 90 88
-0.14853612 -0.039050534 0.65200001 71 87 84
-0.14630651 -0.038930748 0.64999998 63 78 75
-0.14453256 -0.038930748 0.64999998 67 80 73
-0.14275861 -0.038930748 0.64999998 61 74 65
-0.14120156 -0.038990643 0.65100002 67 79 69
-0.13942486 -0.038990643 0.65100002 63 73 64
-0.13807106 -0.03911043 0.653 55 65 56
-0.13649762 -0.039170321 0.65399998 60 70 61
-0.13491872 -0.039230213 0.65499997 53 63 54
-0.13333438 -0.039290112 0.65600002 46 58 48
-0.13214561 -0.03946979 0.65899998 45 58 48
-0.13113828 -0.039709363 0.66299999 35 48 38
-0.12991405 -0.039889045 0.66600001 34 50 39
-0.12809642 -0.039889045 0.66600001 22 40 28
-0.12684762 -0.040068727 0.66900003 22 40 28
-0.12483492 -0.040008828 0.66799998 17 37 25
-0.12356429 -0.04018851 0.671 17 39 26
-0.12173302 -0.04018851 0.671 19 41 28
-0.12079521 -0.040487979 0.676 16 40 26
-0.1193022 -0.040607765 0.67799997 16 40 26
-0.11762507 -0.040667661 0.67900002 13 40 25
-0.11594247 -0.040727552 0.68000001 11 38 23
-0.11458996 -0.040907234 0.68300003 17 43 30
-0.11305603 -0.041027021 0.685 13 41 27
-0.11183582 -0.041266594 0.68900001 11 39 25
-0.11059377 -0.041506168 0.69300002 11 38 29
-0.10901617 -0.041625954 0.69499999 9 41 28
-0.1071194 -0.041625954 0.69499999 8 42 28
-0.10567683 -0.041805636 0.69800001 12 49 41
-0.10406921 -0.041925419 0.69999999 16 62 51
-0.21272741 -0.040700976 0.71200001 65 146 129
-0.21048822 -0.040643815 0.71100003 74 105 100
-0.20825444 -0.040586647 0.70999998 75 91 88
-0.20602617 -0.040529482 0.70899999 79 92 85
-0.20409118 -0.040529482 0.70899999 0 0 0
-0.2013008 -0.040357988 0.70599997 0 0 0
-0.19542043 -0.039557688 0.69199997 0 0 0
-0.18877746 -0.038585898 0.67500001 0 0 0
-0.18416585 -0.038014255 0.66500002 73 88 83
-0.18235096 -0.038014255 0.66500002 84 99 96
-0.17890716 -0.037671268 0.65899998 87 101 101
-0.17603362 -0.03744261 0.65499997 90 104 105
-0.17398 -0.037385445 0.65399998 95 111 111
-0.17193182 -0.037328284 0.653 101 117 117
-0.16962856 -0.037213955 0.65100002 127 142 145
-0.1681097 -0.03727112 0.65200001 118 136 140
-0.16633028 -0.03727112 0.65200001 129 147 151
-0.16455087 -0.03727112 0.65200001 128 146 150
-0.16252181 -0.037213955 0.65100002 128 143 146
-0.16099204 -0.03727112 0.65200001 125 143 143
-0.1594568 -0.037328284 0.653 113 131 131
-0.15815757 -0.03744261 0.65499997 95 113 113
-0.15636998 -0.03744261 0.65499997 88 106 106
-0.15434638 -0.037385445 0.65399998 76 94 94
-0.15232822 -0.037328284 0.653 74 93 91
-0.15031554 -0.03727112 0.65200001 66 85 79
-0.14853612 -0.03727112 0.65200001 54 74 65
-0.14675669 -0.03727112 0.65200001 63 80 70
-0.14519964 -0.037328284 0.653 55 71 60
-0.14341749 -0.037328284 0.653 66 79 69
-0.14185224 -0.037385445 0.65399998 60 72 62
-0.14006737 -0.037385445 0.65399998 49 59 50
-0.13891682 -0.037556939 0.65700001 53 63 54
-0.13754117 -0.037671268 0.65899998 47 59 49
-0.13574265 -0.037671268 0.65899998 50 63 53
-0.13435066 -0.037785597 0.66100001 36 52 41
-0.13294771 -0.037899926 0.66299999 26 44 32
-0.13212726 -0.038185745 0.66799998 20 38 26
-0.13049924 -0.038242914 0.66900003 25 43 31
-0.12905811 -0.038357239 0.671 18 38 26
-0.12779567 -0.038528733 0.67400002 18 38 26
-0.12632994 -0.038643062 0.676 19 39 27
-0.12503749 -0.038814556 0.67900002 14 38 24
-0.12318438 -0.038814556 0.67900002 14 38 24
-0.12168866 -0.038928881 0.68099999 14 38 24
-0.12018202 -0.039043214 0.68300003 16 40 27
-0.11866447 -0.03915754 0.685 15 39 26
-0.1173065 -0.039329033 0.68800002 14 38 25
-0.11576437 -0.039443363 0.69 14 42 28
-0.11437639 -0.039614856 0.69300002 12 40 28
-0.11297202 -0.039786346 0.69599998 9 41 28
-0.1113917 -0.039900675 0.69800001 7 45 32
-0.10980045 -0.040015005 0.69999999 10 51 37
-0.10850655 -0.040243663 0.704 18 69 54
-0.21346457 -0.038540069 0.708 54 131 111
-0.21153231 -0.038540069 0.708 64 97 88
-0.20930403 -0.038485635 0.70700002 80 99 93
-0.20649455 -0.03832233 0.704 83 95 91
-0.20312029 -0.038050152 0.699 0 0 0
-0.19890973 -0.037614673 0.69099998 0 0 0
-0.19445771 -0.037124757 0.68199998 73 86 77
-0.18864284 -0.036362663 0.66799998 70 87 77
-0.18486208 -0.035981618 0.66100001 81 100 94
-0.18195032 -0.035763878 0.65700001 87 101 101
-0.18015727 -0.035763878 0.65700001 93 107 108
-0.17809272 -0.035709444 0.65600002 101 115 116
-0.17495862 -0.035437267 0.65100002 102 118 118
-0.17264988 -0.035328396 0.64899999 114 130 130
-0.17087865 -0.035328396 0.64899999 113 127 128
-0.16884686 -0.035273962 0.648 128 143 146
-0.16707836 -0.035273962 0.648 128 143 146
-0.16505474 -0.035219528 0.64700001 131 149 151
-0.16379374 -0.035328396 0.64899999 123 141 141
-0.1620225 -0.035328396 0.64899999 122 141 139
-0.16049819 -0.03538283 0.64999998 111 130 128
-0.15872422 -0.03538283 0.64999998 91 110 108
-0.15695027 -0.03538283 0.64999998 84 103 101
-0.15565379 -0.035491701 0.65200001 82 101 97
-0.15340236 -0.03538283 0.64999998 79 98 94
-0.15162839 -0.03538283 0.64999998 66 86 77
-0.1496239 -0.035328396 0.64899999 63 83 72
-0.14830831 -0.035437267 0.65100002 59 77 65
-0.14630651 -0.03538283 0.64999998 55 71 60
-0.14497729 -0.035491701 0.65200001 49 65 54
-0.14297825 -0.035437267 0.65100002 53 65 55
-0.14141846 -0.035491701 0.65200001 54 66 56
-0.13985319 -0.035546139 0.653 53 65 55
-0.13849394 -0.035655007 0.65499997 42 55 45
-0.13733247 -0.035818312 0.65799999 36 52 41
-0.13594864 -0.035927184 0.66000003 35 53 41
-0.13435066 -0.035981618 0.66100001 33 51 39
-0.13294771 -0.036090489 0.66299999 21 41 29
-0.13232507 -0.036417101 0.66900003 20 40 28
-0.1312795 -0.03663484 0.67299998 20 40 28
-0.12982745 -0.036743712 0.67500001 18 40 27
-0.12779567 -0.036689278 0.67400002 17 39 26
-0.12632994 -0.036798146 0.676 16 38 25
-0.12522164 -0.037015885 0.68000001 13 37 23
-0.12391007 -0.037179194 0.68300003 13 37 24
-0.12204605 -0.037179194 0.68300003 14 36 23
-0.1207099 -0.037342496 0.68599999 14 38 25
-0.11883769 -0.037342496 0.68599999 13 37 24
-0.1173065 -0.037451368 0.68800002 14 38 25
-0.11609992 -0.037669107 0.69199997 12 40 28
-0.11487152 -0.037886847 0.69599998 7 43 29
-0.11362129 -0.038104586 0.69999999 14 55 41
-0.11187046 -0.038159024 0.70099998 24 70 57
-0.11027103 -0.038267896 0.70300001 25 76 61
-0.21570106 -0.036659524 0.70899999 70 126 113
-0.21316308 -0.036556114 0.70700002 73 87 74
-0.21123354 -0.036556114 0.70700002 75 87 73
-0.2084159 -0.036400992 0.704 0 0 0
-0.20444135 -0.036039054 0.69700003 0 0 0
-0.19847092 -0.035315171 0.68300003 0 0 0
-0.19344044 -0.034746401 0.67199999 72 85 76
-0.19046591 -0.034539577 0.66799998 81 96 89
-0.18694845 -0.034229342 0.662 88 103 100
-0.18402305 -0.034022518 0.65799999 88 104 103
-0.18195032 -0.033970814 0.65700001 95 109 110
-0.18015727 -0.033970814 0.65700001 103 117 118
-0.17782122 -0.0338674 0.65499997 105 119 120
-0.17549612 -0.03376399 0.653 116 130 131
-0.17318194 -0.033660579 0.65100002 132 146 147
-0.17140524 -0.033660579 0.65100002 133 147 148
-0.16962856 -0.033660579 0.65100002 115 129 130
-0.16785187 -0.033660579 0.65100002 127 141 142
-0.16556495 -0.033557165 0.64899999 125 141 141
-0.16354136 -0.033505458 0.648 113 131 131
-0.16227214 -0.033608869 0.64999998 102 121 119
-0.16074513 -0.033660579 0.65100002 92 108 105
-0.15896843 -0.033660579 0.65100002 83 99 98
-0.15719174 -0.033660579 0.65100002 82 101 97
-0.15541506 -0.033660579 0.65100002 79 96 90
-0.15363838 -0.033660579 0.65100002 76 93 85
-0.15162839 -0.033608869 0.64999998 65 82 72
-0.15008499 -0.033660579 0.65100002 53 69 58
-0.14876394 -0.03376399 0.653 55 71 58
-0.14720687 -0.033815693 0.65399998 59 73 60
-0.14564435 -0.0338674 0.65499997 54 68 55
-0.14407639 -0.033919107 0.65600002 54 66 54
-0.14271985 -0.034022518 0.65799999 48 60 48
-0.14070988 -0.033970814 0.65700001 32 46 33
-0.1393397 -0.034074225 0.65899998 25 43 31
-0.13837603 -0.034281049 0.66299999 27 47 35
-0.13739052 -0.034487873 0.667 20 42 29
-0.13597669 -0.034591287 0.66900003 16 38 25
-0.13395034 -0.034539577 0.66799998 16 40 26
-0.13351183 -0.034901522 0.67500001 18 42 28
-0.13205977 -0.035004932 0.67699999 16 40 26
-0.13098148 -0.035211757 0.68099999 16 40 27
-0.12874369 -0.035108346 0.67900002 18 40 28
-0.12726434 -0.035211757 0.68099999 14 38 25
-0.12558992 -0.03526346 0.68199998 17 41 28
-0.12445432 -0.035470285 0.68599999 16 40 27
-0.12311819 -0.035625406 0.68900001 12 38 25
-0.12141375 -0.035677109 0.69 9 39 27
-0.11953063 -0.035677109 0.69 9 41 28
-0.11815902 -0.03583223 0.69300002 10 42 29
-0.11710657 -0.036090758 0.69800001 8 52 39
-0.11602684 -0.036349289 0.70300001 17 68 53
-0.21610121 -0.034479659 0.704 53 104 89
-0.21448413 -0.034528635 0.70499998 71 88 78
-0.21165556 -0.034381706 0.70200002 75 85 74
-0.20914212 -0.034283753 0.69999999 0 0 0
-0.20427126 -0.033793986 0.69 0 0 0
-0.19828171 -0.033108309 0.676 0 0 0
-0.19265917 -0.032471612 0.66299999 72 85 76
-0.18941043 -0.032226726 0.65799999 82 99 93
-0.1873295 -0.03217775 0.65700001 89 106 100
-0.18525407 -0.032128774 0.65600002 88 107 103
-0.18234503 -0.031932868 0.65200001 94 110 110
-0.18056561 -0.031932868 0.65200001 101 119 119
-0.1787862 -0.031932868 0.65200001 115 131 131
-0.17646381 -0.031834912 0.64999998 118 133 136
-0.1744211 -0.031785935 0.64899999 127 141 144
-0.17238386 -0.031736959 0.648 133 147 150
-0.17087865 -0.031785935 0.64899999 134 145 149
-0.16936798 -0.031834912 0.64999998 121 135 136
-0.1673362 -0.031785935 0.64899999 114 130 129
-0.16505474 -0.031687982 0.64700001 106 122 121
-0.16303661 -0.031639006 0.64600003 95 111 108
-0.16152321 -0.031687982 0.64700001 92 108 105
-0.16000436 -0.031736959 0.648 89 104 99
-0.15799166 -0.031687982 0.64700001 80 95 90
-0.15598443 -0.031639006 0.64600003 76 91 86
-0.1542214 -0.031639006 0.64600003 76 89 82
-0.15245835 -0.031639006 0.64600003 71 84 75
-0.15116185 -0.031736959 0.648 57 70 60
-0.15008499 -0.031883892 0.65100002 58 70 58
-0.14899175 -0.032030821 0.65399998 51 63 51
-0.14720687 -0.032030821 0.65399998 46 58 44
-0.14497729 -0.031932868 0.65200001 48 60 48
-0.14341749 -0.031981844 0.653 36 50 35
-0.14271985 -0.032226726 0.65799999 34 50 37
-0.14113821 -0.032275703 0.65899998 27 45 31
-0.14018546 -0.032471612 0.66299999 20 40 28
-0.13921088 -0.032667518 0.667 18 40 27
-0.13842043 -0.032912403 0.67199999 18 42 28
-0.13658644 -0.032912403 0.67199999 17 44 29
-0.13495296 -0.03296138 0.67299998 12 39 24
-0.13430302 -0.033255242 0.67900002 15 42 27
-0.13323016 -0.033451147 0.68300003 14 40 27
-0.13175082 -0.0335491 0.685 15 39 26
-0.12931252 -0.033402171 0.68199998 16 39 29
-0.12726434 -0.033353195 0.68099999 10 36 25
-0.12522164 -0.033304218 0.68000001 14 40 29
-0.12427291 -0.0335491 0.685 12 40 28
-0.1229395 -0.033696033 0.68800002 10 41 26
-0.12123779 -0.033745009 0.68900001 6 42 28
-0.11970386 -0.033842962 0.69099998 14 55 39
-0.11832952 -0.033989891 0.69400001 20 68 52
-0.11727434 -0.034234777 0.699 23 77 63
-0.21802256 -0.032558326 0.704 62 108 95
-0.21610121 -0.032558326 0.704 69 92 82
-0.21417989 -0.032558326 0.704 76 85 80
-0.21014804 -0.032234594 0.69700003 0 0 0
-0.20525804 -0.031772118 0.68699998 0 0 0
-0.1986464 -0.031032156 0.671 0 0 0
-0.19388196 -0.03056968 0.66100001 70 85 80
-0.19091564 -0.03038469 0.65700001 83 98 95
-0.18883473 -0.030338442 0.65600002 87 103 102
-0.18704438 -0.030338442 0.65600002 94 112 112
-0.18468925 -0.030245945 0.65399998 98 116 116
-0.18234503 -0.030153451 0.65200001 100 118 118
-0.18056561 -0.030153451 0.65200001 116 134 134
-0.17906041 -0.030199699 0.653 115 131 131
-0.17700678 -0.030153451 0.65200001 126 142 142
-0.17468984 -0.030060954 0.64999998 116 130 131
-0.17264988 -0.030014707 0.64899999 116 127 129
-0.17087865 -0.030014707 0.64899999 114 125 127
-0.16936798 -0.030060954 0.64999998 110 121 123
-0.16759402 -0.030060954 0.64999998 103 117 117
-0.16607517 -0.030107204 0.65100002 93 112 108
-0.16379374 -0.030014707 0.64899999 84 103 99
-0.16127355 -0.029875966 0.64600003 89 108 102
-0.15975744 -0.029922213 0.64700001 85 100 93
-0.15823585 -0.029968461 0.648 82 95 88
-0.15646735 -0.029968461 0.648 61 74 65
-0.15469885 -0.029968461 0.648 65 75 66
-0.15293036 -0.029968461 0.648 59 71 61
-0.15186168 -0.030107204 0.65100002 55 67 57
-0.15054607 -0.030199699 0.653 50 62 52
-0.14944738 -0.030338442 0.65600002 48 60 50
-0.14788213 -0.03038469 0.65700001 37 50 40
-0.14608908 -0.03038469 0.65700001 30 48 36
-0.14473526 -0.030477183 0.65899998 24 42 30
-0.14402124 -0.030708421 0.66399997 18 38 26
-0.14220907 -0.030708421 0.66399997 19 39 27
-0.14124267 -0.030893411 0.66799998 16 40 26
-0.14004573 -0.031032156 0.671 19 43 29
-0.13965632 -0.031355888 0.67799997 14 42 27
-0.1376027 -0.031309642 0.67699999 11 39 24
-0.13595559 -0.031355888 0.67799997 14 42 27
-0.1345008 -0.031448383 0.68000001 12 39 24
-0.13284002 -0.031494632 0.68099999 13 39 26
-0.13155848 -0.031633377 0.68400002 11 37 24
-0.12950213 -0.031587128 0.68300003 10 37 28
-0.1276381 -0.031587128 0.68300003 9 36 27
-0.12595823 -0.031633377 0.68400002 8 38 30
-0.12499858 -0.031864613 0.68900001 8 38 30
-0.12383296 -0.032049604 0.69300002 5 49 36
-0.12264549 -0.032234594 0.69700003 15 65 53
-0.21869421 -0.030462921 0.69999999 48 102 88
-0.2164741 -0.030419402 0.699 63 99 89
-0.21456641 -0.030419402 0.699 67 90 80
-0.21083334 -0.030158293 0.69300002 0 0 0
-0.20441945 -0.029505514 0.67799997 0 0 0
-0.19898379 -0.028983293 0.66600001 0 0 0
-0.19479781 -0.028635144 0.65799999 86 103 97
-0.19182874 -0.028461071 0.65399998 85 100 97
-0.18975329 -0.028417552 0.653 82 101 99
-0.18797114 -0.028417552 0.653 88 106 106
-0.18590386 -0.028374035 0.65200001 94 112 112
-0.18384206 -0.028330516 0.65100002 103 123 122
-0.18178569 -0.028286997 0.64999998 108 126 126
-0.18001172 -0.028286997 0.64999998 110 128 128
-0.17851201 -0.028330516 0.65100002 120 138 138
-0.17646381 -0.028286997 0.64999998 113 129 129
-0.1744211 -0.028243478 0.64899999 113 127 128
-0.17264988 -0.028243478 0.64899999 107 121 122
-0.17035206 -0.028156443 0.64700001 109 123 124
-0.16832574 -0.028112926 0.64600003 110 121 123
-0.16630484 -0.028069405 0.64499998 102 116 116
-0.16530985 -0.028199961 0.648 91 110 104
-0.16328898 -0.028156443 0.64700001 93 112 106
-0.1610239 -0.028069405 0.64499998 89 106 98
-0.1592636 -0.028069405 0.64499998 74 90 79
-0.15774748 -0.028112926 0.64600003 69 82 72
-0.15598443 -0.028112926 0.64600003 60 70 61
-0.1542214 -0.028112926 0.64600003 54 64 55
-0.15269436 -0.028156443 0.64700001 58 70 60
-0.15186168 -0.028330516 0.65100002 46 58 48
-0.15031554 -0.028374035 0.65200001 40 53 43
-0.14921956 -0.028504588 0.65499997 33 49 38
-0.14765705 -0.028548108 0.65600002 21 39 27
-0.14675616 -0.028722184 0.66000003 17 37 25
-0.14517453 -0.028765701 0.66100001 19 41 28
-0.14445505 -0.028983293 0.66600001 20 42 29
-0.14220907 -0.028896255 0.66399997 15 39 25
-0.14124267 -0.029070329 0.66799998 12 39 24
-0.13983703 -0.029157367 0.67000002 12 39 24
-0.13903838 -0.029374959 0.67500001 13 41 26
-0.1371962 -0.029374959 0.67500001 13 41 26
-0.13595559 -0.029505514 0.67799997 13 41 26
-0.13410521 -0.029505514 0.67799997 12 40 25
-0.13303509 -0.029679587 0.68199998 12 40 26
-0.13098148 -0.02963607 0.68099999 11 41 29
-0.12950213 -0.029723108 0.68300003 10 37 28
-0.1276381 -0.029723108 0.68300003 11 42 36
-0.12651068 -0.029897179 0.68699998 17 57 48
-0.21713211 -0.028348558 0.69499999 59 92 85
-0.21368688 -0.028144611 0.69 0 0 0
-0.21118984 -0.028063033 0.68800002 63 90 83
-0.2068783 -0.027736718 0.68000001 70 89 83
-0.20140442 -0.027247246 0.66799998 77 96 90
-0.19689235 -0.026880141 0.65899998 0 0 0
-0.19390966 -0.026716985 0.65499997 80 99 95
-0.19124211 -0.026594618 0.65200001 79 95 94
-0.18975329 -0.026635407 0.653 83 102 100
-0.18797114 -0.026635407 0.653 87 105 105
-0.186189 -0.026635407 0.653 103 123 124
-0.18384206 -0.02655383 0.65100002 110 130 131
-0.18178569 -0.026513038 0.64999998 116 134 134
-0.18001172 -0.026513038 0.64999998 112 130 130
-0.1787862 -0.026594618 0.65200001 110 128 128
-0.17700678 -0.026594618 0.65200001 108 124 124
-0.17495862 -0.02655383 0.65100002 104 120 120
-0.17291591 -0.026513038 0.64999998 110 124 125
-0.17061535 -0.02643146 0.648 114 128 128
-0.16910742 -0.02647225 0.64899999 113 125 123
-0.16707836 -0.02643146 0.648 109 121 117
-0.16607517 -0.02655383 0.65100002 91 108 100
-0.16404611 -0.026513038 0.64999998 86 103 93
-0.16177285 -0.02643146 0.648 80 98 86
-0.15975744 -0.026390672 0.64700001 61 77 64
-0.15848003 -0.02647225 0.64899999 55 69 54
-0.15695027 -0.026513038 0.64999998 57 69 57
-0.15565379 -0.026594618 0.65200001 49 61 49
-0.15411037 -0.026635407 0.653 42 54 44
-0.15302806 -0.026757777 0.65600002 32 45 35
-0.15146826 -0.026798565 0.65700001 24 40 29
-0.15035866 -0.026920933 0.66000003 21 41 29
-0.14900756 -0.027002512 0.662 20 42 29
-0.14809029 -0.027165668 0.66600001 21 43 30
-0.1464923 -0.027206456 0.667 17 41 28
-0.14510575 -0.027288036 0.66900003 16 42 29
-0.14327992 -0.027288036 0.66900003 13 39 26
-0.14208844 -0.027410403 0.67199999 13 39 26
-0.14067186 -0.027491983 0.67400002 16 40 26
-0.13965632 -0.027655138 0.67799997 16 43 28
-0.13800922 -0.02769593 0.67900002 12 39 24
-0.13615611 -0.02769593 0.67900002 10 41 26
-0.13430302 -0.02769593 0.67900002 8 42 28
-0.13323016 -0.027859086 0.68300003 4 40 28
-0.13194315 -0.027981453 0.68599999 10 46 36
-0.13101898 -0.028185399 0.69099998 16 58 46
-0.12932 -0.028226189 0.69199997 24 71 61
-0.20873183 -0.025652526 0.67400002 50 80 72
-0.20597148 -0.025538344 0.671 45 72 63
-0.20322751 -0.025424162 0.66799998 68 94 85
-0.20049992 -0.025309984 0.66500002 73 94 87
-0.19629481 -0.025005503 0.65700001 73 92 88
-0.19361362 -0.024891321 0.65399998 74 93 89
-0.19065547 -0.024739081 0.64999998 74 93 89
-0.18859094 -0.024701022 0.64899999 79 99 97
-0.18710756 -0.024739081 0.64999998 98 116 116
-0.18533359 -0.024739081 0.64999998 103 121 121
-0.18355966 -0.024739081 0.64999998 107 125 125
-0.18094669 -0.024624901 0.64700001 115 131 131
-0.17918091 -0.024624901 0.64700001 111 125 126
-0.17768936 -0.02466296 0.648 106 120 121
-0.17592086 -0.02466296 0.648 114 130 130
-0.1744211 -0.024701022 0.64899999 119 133 134
-0.17238386 -0.02466296 0.648 107 122 119
-0.17008877 -0.024586841 0.64600003 115 127 125
-0.16832574 -0.024586841 0.64600003 107 118 114
-0.16630484 -0.02454878 0.64499998 96 107 101
-0.16505474 -0.024624901 0.64700001 73 86 76
-0.16354136 -0.02466296 0.648 67 83 70
-0.1620225 -0.024701022 0.64899999 56 72 59
-0.16025127 -0.024701022 0.64899999 57 74 56
-0.15848003 -0.024701022 0.64899999 46 63 45
-0.15670881 -0.024701022 0.64899999 46 60 47
-0.15517631 -0.024739081 0.64999998 38 54 41
-0.15411037 -0.024853261 0.653 29 47 35
-0.15326132 -0.025005503 0.65700001 21 39 27
-0.15239045 -0.025157742 0.66100001 20 40 28
-0.15104209 -0.025233863 0.66299999 19 41 28
-0.14968283 -0.025309984 0.66500002 15 39 25
-0.14809029 -0.025348043 0.66600001 15 41 28
-0.1464923 -0.025386102 0.667 13 39 26
-0.14510575 -0.025462225 0.66900003 13 39 26
-0.14413661 -0.025614463 0.67299998 13 39 26
-0.14272277 -0.025690585 0.67500001 15 39 25
-0.14088058 -0.025690585 0.67500001 17 41 27
-0.13903838 -0.025690585 0.67500001 12 39 24
-0.13780595 -0.025804764 0.67799997 11 41 29
-0.13655716 -0.025918946 0.68099999 12 44 33
-0.1350942 -0.025995066 0.68300003 7 43 33
-0.13459563 -0.026261486 0.69 19 62 52
-0.13328952 -0.026375668 0.69300002 22 72 61
-0.20505057 -0.023601079 0.66799998 38 68 58
-0.20261905 -0.023530418 0.66600001 57 83 74
-0.1992939 -0.023353765 0.66100001 62 83 78
-0.19569726 -0.023141777 0.65499997 68 91 85
-0.19331758 -0.023071116 0.653 69 90 85
-0.1909488 -0.023000455 0.65100002 81 100 98
-0.18888153 -0.022965122 0.64999998 92 113 108
-0.18710756 -0.022965122 0.64999998 96 116 114
-0.18504848 -0.022929791 0.64899999 98 116 116
-0.18327725 -0.022929791 0.64899999 107 123 123
-0.18122636 -0.022894461 0.648 101 115 116
-0.17945784 -0.022894461 0.648 109 119 121
-0.17796357 -0.022929791 0.64899999 123 133 135
-0.17592086 -0.022894461 0.648 132 144 144
-0.1744211 -0.022929791 0.64899999 139 151 151
-0.17238386 -0.022894461 0.648 121 132 128
-0.17087865 -0.022929791 0.64899999 104 115 109
-0.16884686 -0.022894461 0.648 91 100 95
-0.16707836 -0.022894461 0.648 80 87 80
-0.16582006 -0.022965122 0.64999998 68 75 67
-0.1642985 -0.023000455 0.65100002 68 80 68
-0.16277145 -0.023035785 0.65200001 48 62 47
-0.16123895 -0.023071116 0.653 36 53 37
-0.15994518 -0.023141777 0.65499997 36 53 37
-0.1586405 -0.02321244 0.65700001 27 45 31
-0.15708618 -0.023247771 0.65799999 21 41 29
-0.15599841 -0.023353765 0.66100001 19 41 28
-0.15489423 -0.023459755 0.66399997 19 41 28
-0.15377371 -0.023565749 0.667 17 41 27
-0.15218118 -0.023601079 0.66799998 17 41 27
-0.15080826 -0.023671743 0.67000002 14 38 25
-0.14897972 -0.023671743 0.67000002 13 37 24
-0.14737082 -0.023707073 0.671 12 38 27
-0.14619024 -0.023813067 0.67400002 12 40 28
-0.14542164 -0.023989722 0.67900002 14 42 30
-0.14356853 -0.023989722 0.67900002 14 38 25
-0.14171542 -0.023989722 0.67900002 13 39 26
-0.14006829 -0.024025053 0.68000001 11 43 28
-0.13922873 -0.024201706 0.685 7 45 32
-0.13836189 -0.024378361 0.69 13 61 49
-0.13707215 -0.024484355 0.69300002 22 74 62
-0.20535755 -0.021810601 0.66900003 39 66 57
-0.20292328 -0.021745395 0.667 59 82 74
-0.1998969 -0.021614987 0.66299999 74 97 89
-0.19629481 -0.021419378 0.65700001 78 99 94
-0.19331758 -0.02128897 0.653 0 0 0
-0.19124211 -0.021256369 0.65200001 84 105 100
-0.18888153 -0.021191165 0.64999998 87 108 103
-0.1868197 -0.021158563 0.64899999 98 117 113
-0.18447822 -0.021093359 0.64700001 99 113 113
-0.18271247 -0.021093359 0.64700001 103 115 115
-0.18066701 -0.021060759 0.64600003 119 129 130
-0.17890397 -0.021060759 0.64600003 134 144 146
-0.17686671 -0.021028155 0.64499998 131 141 142
-0.17483492 -0.020995554 0.64399999 136 148 146
-0.17307733 -0.020995554 0.64399999 121 133 131
-0.17158578 -0.021028155 0.64499998 101 112 106
-0.17008877 -0.021060759 0.64600003 79 89 81
-0.1685863 -0.021093359 0.64700001 70 80 72
-0.16682053 -0.021093359 0.64700001 68 75 67
-0.16530985 -0.021125961 0.648 61 68 60
-0.16379374 -0.021158563 0.64899999 54 66 54
-0.16277145 -0.021256369 0.65200001 49 63 50
-0.16074513 -0.021223767 0.65100002 31 47 34
-0.15970099 -0.021321572 0.65399998 22 43 28
-0.15888196 -0.02145198 0.65799999 20 42 29
-0.15851857 -0.021647589 0.66399997 18 40 27
-0.15741442 -0.021745395 0.667 18 42 28
-0.15582733 -0.021777997 0.66799998 13 40 25
-0.15423481 -0.021810601 0.66900003 14 41 26
-0.152409 -0.021810601 0.66900003 12 39 24
-0.15080826 -0.021843201 0.67000002 12 38 25
-0.14875737 -0.021810601 0.66900003 11 37 26
-0.14737082 -0.021875802 0.671 12 38 25
-0.14619024 -0.021973608 0.67400002 11 37 24
-0.1456358 -0.022169219 0.68000001 14 42 28
-0.14377996 -0.022169219 0.68000001 11 43 30
-0.14192414 -0.022169219 0.68000001 10 44 30
-0.14027427 -0.022201821 0.68099999 16 54 41
-0.13943198 -0.022364829 0.68599999 24 70 57
-0.20566137 -0.020193893 0.676 31 58 51
-0.20230894 -0.020044532 0.671 66 91 85
-0.19868502 -0.019865295 0.66500002 78 101 95
-0.19450177 -0.019626314 0.65700001 0 0 0
-0.19182874 -0.019536696 0.65399998 0 0 0
-0.18946271 -0.019476952 0.65200001 0 0 0
-0.18739544 -0.019447079 0.65100002 99 111 107
-0.18447822 -0.019327588 0.64700001 108 119 115
-0.18299486 -0.01935746 0.648 125 135 134
-0.18094669 -0.019327588 0.64700001 146 156 157
-0.17918091 -0.019327588 0.64700001 141 153 153
-0.17741515 -0.019327588 0.64700001 126 138 136
-0.17510639 -0.019267842 0.64499998 112 125 118
-0.17334607 -0.019267842 0.64499998 96 111 104
-0.17185181 -0.019297715 0.64600003 82 98 87
-0.17087865 -0.019387333 0.64899999 60 73 63
-0.16988912 -0.019476952 0.65200001 49 62 52
-0.16862537 -0.019536696 0.65399998 52 62 53
-0.1670956 -0.019566568 0.65499997 37 49 39
-0.165308 -0.019566568 0.65499997 34 50 37
-0.16426934 -0.019656187 0.65799999 32 50 38
-0.16247356 -0.019656187 0.65799999 26 46 34
-0.16116615 -0.019715933 0.66000003 16 38 25
-0.16008928 -0.019805549 0.66299999 20 44 31
-0.15971226 -0.019984787 0.66900003 15 41 28
-0.15835844 -0.020044532 0.671 13 41 27
-0.15722699 -0.020134149 0.67400002 11 39 25
-0.15515698 -0.020104276 0.67299998 12 38 25
-0.1537759 -0.020164022 0.67500001 11 37 24
-0.15148352 -0.020104276 0.67299998 11 39 27
-0.14964679 -0.020104276 0.67299998 11 41 29
-0.1480297 -0.020134149 0.67400002 12 43 28
